# 3D point list with one line of data per point:
#   POINT3D_ID, X, Y, Z, R, G, B, ERROR, TRACK[] as (IMAGE_ID, POINT2D_IDX)
# Number of points: 279, mean track length: 7.3323113207547168
3618 -1.5519547488960845 1.1252683194304531 3.0323117501656092 41 45 30 0.44552171988839062 53 262 56 595 52 560 62 500
326 -1.5362313907446816 1.1347367337762559 3.0413134612317516 49 48 21 0.17787952436432011 42 1332 39 989 38 1111 32 1432 31 1452 35 1421 36 1312 34 1151 40 990 47 844 28 929 30 693
205 -1.5533024946070098 1.1125326973536283 3.0422642782237488 109 109 109 0.23584125539295986 42 1208 39 891 38 994 32 1294 31 1317 35 1284 36 1176 34 1019 40 874 47 763 28 838 30 614
2595 -1.5702876710407048 1.1530885886292488 2.98936591504002 117 126 115 0.13749584258051761 33 209 46 216 37 199 48 197 45 160 44 120 50 125 51 113 54 134 55 174 43 257 49 130 41 271
3410 -1.5379410211984228 1.1294010656736557 3.0443970539811409 45 42 30 0.14660996749144978 52 287 53 390 56 621 62 347
206 -1.5979857897599363 1.1157212954902309 2.991601896702849 130 136 125 0.24265969891900196 42 1209 39 834 38 1022 32 1273 31 1272 35 1213 36 1079 34 905 40 755 28 903 30 706 29 577
320 -1.5858065493231561 1.1365151618413127 2.9867242203015882 51 48 24 0.21263188055356175 42 1326 39 1055 38 1141 32 1393 31 1387 35 1325 36 1189 34 1010 40 849 47 726 28 1027 30 830
1581 -1.5598819629339489 1.1133236607841521 3.0348463159471688 49 39 30 0.11730396264771208 29 486 27 476 26 514 25 554 24 517 20 546 22 543
1372 -1.6036555532982741 1.2744065766701016 2.8827409244986022 33 34 18 0.91271234287694292 36 733 40 1158 47 628
207 -1.5599709513420366 1.1132465594170915 3.0346175874476322 50 46 29 0.23620686972065741 42 1210 39 898 38 998 32 1293 31 1311 35 1274 36 1162 34 1004 40 852 47 748 28 844 30 626
208 -1.5666080038780694 1.1139963033971958 3.0266789325349532 113 115 107 0.15493827894054391 42 1211 39 905 38 1005 32 1291 31 1304 35 1264 36 1147 34 988 40 836 47 732 28 856 30 639
929 -1.3276807350242352 1.0961373196233981 3.2739030859117007 37 46 29 0.97434314217173268 32 523 31 636 35 53
330 -1.5428935859235673 1.1354497218955539 3.0334023106893224 110 116 103 0.19904932315471038 42 1336 39 1002 38 1118 32 1429 31 1442 35 1412 36 1295 34 1132 40 970 47 825 28 946 30 712
1446 -1.557730756849391 1.092917188534368 3.0536011341449698 116 112 102 0.84521544782373004 28 428 30 311 29 227 27 448 25 539 24 584
209 -1.5732513968233368 1.1147128365607077 3.0191670915469908 49 46 27 0.18323460532685318 42 1212 39 913 38 1011 32 1288 31 1298 35 1256 36 1134 34 973 40 819 47 721 28 866 30 651
1955 -1.3763228078950485 1.2285443750961176 3.1500561940005318 41 46 26 1.3840604222977912 24 47 27 98 20 44 22 52
210 -1.5798781251853697 1.1154495952133672 3.0113425586781664 113 118 100 0.16268492042324187 42 1213 39 920 38 1016 32 1286 31 1294 35 1246 36 1121 34 954 40 805 47 577 28 878 30 668
1223 -1.5325180942273042 0.99877482746756963 3.1211409194504194 30 29 21 0.45766794627802243 36 82 40 387
340 -1.5827559499878538 1.139788062190799 2.9872380475764877 131 128 113 0.23020813038543822 42 1348 39 1073 38 1160 32 1415 31 1410 35 1347 36 1209 34 1028 40 865 47 367 28 1046 30 846
549 -1.6643864233365329 1.2124057622486055 2.8678688677875499 6 12 0 0.31425325696284656 42 1595 39 510 38 564 32 655
211 -1.548498498807287 1.1138403187125507 3.0465200572163855 107 113 116 0.20308940026107733 42 1214 39 893 38 999 32 1305 31 1332 35 1300 36 1191 34 1037 40 894 47 776 28 839 30 613
212 -1.5864951252326385 1.1162285029841472 3.003533120207817 51 48 24 0.15706533572908418 42 1216 39 927 38 1019 32 1168 31 1287 35 1236 36 1107 34 938 40 786 47 689 28 890 30 685
933 -1.3170132865330331 1.1282812662823312 3.2326692079329642 4 16 7 0.51395934186475856 32 593 31 683
1273 -1.4217579372287248 1.1186457135723862 3.1759766720531379 81 92 77 1.6256042886350186 36 680 34 627 40 572 36 1513
334 -1.562804112315141 1.1376927239746855 3.0103662016354762 52 40 23 0.092852227583535438 42 1341 39 1039 38 1140 32 1423 31 1427 35 1375 36 1253 34 1082 40 921 47 781 28 995 30 779
213 -1.5932472320076148 1.1167961984845014 2.9961753530042645 120 120 105 0.19730426406601684 36 1096 34 922 40 770 47 677 41 589 43 470 33 428 46 654 37 575 49 484 35 1225 44 501 45 441 48 493 50 432 51 427 54 415 31 1281 32 1282 55 359 42 1217 38 1027 39 936 28 904 30 702 29 568
214 -1.5617900920480694 1.1152117062878786 3.0310672869520592 112 112 107 0.16562192990185229 42 1218 39 907 38 1008 32 1301 31 1316 35 1279 36 1165 34 1006 40 857 47 747 28 857 30 636
2612 -1.5565309690657279 1.1365004781365995 3.0185807032116854 109 118 105 0.49817925026768678 41 281 43 278 33 238 46 271 37 263 48 270 45 237 44 211 49 219 50 202 51 187 54 346 55 219
328 -1.5676703993774617 1.1363437598318338 3.006134953884148 48 44 25 0.19825571324687966 42 1334 39 1035 38 1131 32 1408 31 1413 35 1360 36 1235 34 1063 40 905 47 768 28 993 30 784
3323 -1.5388898530184378 1.1668044521244765 3.0102379236856502 111 121 111 0.14707635468285346 52 534 53 233 56 207 62 223
1444 -1.6479276039425659 1.0150426137957751 3.0341346466284183 115 112 94 0.49716327964848656 27 445 26 338 25 402 24 422 20 432 22 132 23 551 18 152 21 152 11 170 29 441 19 139 17 446 13 235 16 164 9 230 14 278 28 787
215 -1.5682877605841647 1.1161088244137629 3.0230072071017391 45 46 27 0.21451958634239265 42 1219 39 916 38 1015 32 1299 31 1312 35 1271 36 1153 34 990 40 842 47 731 28 867 30 650
1598 -1.5317443197120593 1.1435150339674272 3.038547545653564 129 131 114 0.098263631808574683 29 570 27 523 26 419 25 151 24 155 20 525 22 551
216 -1.5749978729203791 1.1167457575971633 3.0152916632504629 111 120 103 0.12346345017086376 42 1220 39 923 38 1020 32 1297 31 1306 35 1259 36 1137 34 975 40 818 47 720 28 879 30 666
937 -1.3864322993977349 1.1807529911323766 3.1553113634011165 56 53 39 1.4808968343379565 32 669 31 744
1571 -1.5168656406688259 1.3166603356001398 2.9171151392434815 20 23 15 1.6449528196656047 30 1120 27 437 25 627 26 633
338 -1.5445744242317572 1.1375446054250047 3.0298335566197543 52 45 29 0.16259564647744845 42 1345 39 1020 38 1133 32 1439 31 1453 35 1417 36 1299 34 1134 40 974 47 824 28 961 41 710 43 552 33 617 46 322 37 319 48 563 45 296 44 402 49 546 50 395 51 538 54 536 55 546 30 730
3277 -1.5739072619652823 1.1421005421432566 2.9960232978896237 99 106 99 0.055346432072707966 52 348 53 171 56 394 62 474
1454 -1.4704680222296513 1.4110002506509896 2.6631702998176912 15 15 10 0.92621750980224071 39 655 30 574
217 -1.5816576250284948 1.1174702464099313 3.0078834616361156 51 45 32 0.17194920116545651 42 1221 39 931 38 1026 32 1295 31 1301 35 1252 36 1124 34 958 40 804 47 701 28 889 30 683
1963 -1.5779023781642185 1.1136786696772778 3.015785585095589 47 35 47 0.078509249549311391 24 186 20 191 22 223
2616 -1.5584329000674144 1.146273323980441 3.0079140594425886 113 122 116 0.08877751967116293 41 288 43 282 33 241 46 270 37 256 48 256 45 224 44 190 49 201 50 179 51 170 54 177 55 476
1231 -1.4030418552110078 1.1366308797534395 3.1892768223429635 35 42 40 1.3758448369835785 35 232 36 245 34 218
348 -1.5711784490911394 1.1404280430664178 2.9989192131094038 53 42 25 0.16592672477360973 42 1356 39 1067 38 1161 32 1430 31 1429 35 1371 36 1244 34 1067 40 903 47 767 28 1029 30 823
557 -1.25262269063691 1.2720165537271209 3.2687311435617969 43 47 38 0.96677458164135555 42 1703 39 455
219 -1.5502370931248857 1.1158292273953963 3.0430926725793399 53 46 28 0.19010534656983055 42 1223 39 902 38 1007 32 1314 31 1338 35 1306 36 1197 34 1039 40 893 47 775 28 847 30 623
3496 -1.5540684712380919 1.1551039714701057 3.0052302687294832 42 37 25 0.10174850759126827 52 500 53 534 56 551 62 196
3641 -1.5738890004675623 1.0941398402999951 3.0359313648343704 40 38 34 0.26776404727250874 57 388 59 421 61 508 60 474 63 557 64 611 66 690 58 336 62 286 56 241
220 -1.5949091277282275 1.1187994659080216 2.9923359271795373 49 46 33 0.29440340667644488 36 1099 34 925 40 769 47 676 41 458 43 467 33 426 46 498 37 479 49 390 35 1230 48 490 44 371 45 437 50 340 51 331 54 318 31 1290 32 1290 55 154 42 1224 38 1037 39 949 28 918 30 720 29 591
941 -1.4109355849366501 1.1960376737460539 3.1309949865491595 90 89 64 1.2194223361613805 31 763 35 1682 36 760 32 1049
1217 -1.4349675655426737 1.0306339429331233 3.2238232912517626 24 32 16 1.5401145408756489 35 399 36 516 34 129 40 424
342 -1.5893655081690099 1.140654460110045 2.979338034602391 52 47 30 0.12375043231779687 42 1350 39 1088 38 1169 32 1413 31 1403 35 1336 36 1198 34 817 40 850 47 354 28 1061 30 867
221 -1.5568760445644831 1.1165432804863016 3.0352134348501201 111 112 100 0.1330395498703352 42 1225 39 910 38 1013 32 1313 31 1334 35 1295 36 1184 34 1022 40 875 47 611 28 858 30 637
3490 -1.551118509007281 1.1608715452195921 3.0014716203056033 44 41 26 0.044279666618685397 52 495 53 528 56 547 62 567
222 -1.5701396550057221 1.1180484859115452 3.0195694889611699 114 120 105 0.18245143523093763 42 1226 39 924 38 1024 32 1309 31 1320 35 1273 36 1158 34 993 40 841 47 571 28 880 30 664
336 -1.5695189198252506 1.1383066500338406 3.0028470772299918 116 121 106 0.087157257226742099 42 1343 39 1050 38 1147 32 1419 31 1420 35 1366 36 1239 34 1066 40 904 47 614 28 1012 30 803
545 -1.5454326971180765 1.1877159760542921 2.9860802754670175 65 51 33 0.32125998175370879 42 1575 39 1249 38 1353 32 1652 31 1668 35 1619 36 1503 34 1309 40 1131 47 445 28 1197 30 988 29 407 27 376 25 524 24 408 20 416 22 433 41 363 23 430 19 413 18 434 21 427 17 412 11 395 43 594 33 530 46 357 37 569 48 327 45 277 44 237 50 191 51 180 53 182 56 393 62 463 58 503 57 527 59 518 13 429 16 393 9 715 52 196 60 570 61 563 63 600 64 653 66 744 14 771 10 506 15 782 12 758 7 753 4 743 8 374 6 506 49 229 54 178 55 201 5 593 3 825 1 911 2 911
1597 -1.5607159943371214 1.1281290921587372 3.0208666501487969 51 42 30 0.15390494401519045 29 554 27 522 26 164 25 174 24 193 20 185 22 208
1452 -1.5967407319701197 1.2741694891453184 2.8936194139225506 64 54 54 0.76876350776161928 28 1284 30 400 27 661
224 -1.6014148524668443 1.1198357228931644 2.9841738825411661 133 134 125 0.24555613777017976 42 1228 39 959 38 1043 32 1289 31 1283 35 1222 36 1085 34 908 40 753 47 670 28 933 30 743 29 610
881 -1.331454622229451 1.1226496318725323 3.2260313447934208 53 56 46 0.87644736601788709 32 87 31 244
282 -1.5920471770419016 1.1298570267179144 2.9857584108313286 49 45 39 0.14688973787924459 42 1287 39 1016 38 1101 32 1350 31 1344 35 1283 36 1146 34 971 40 809 47 698 28 988 30 797 27 579 29 643 25 592
1398 -1.4115217698985612 1.3398358355256126 3.0507702497588558 25 22 15 0.37665058631494791 36 1624 47 976 41 795 43 744 33 655 46 682 37 662 45 578 55 619 52 651 53 673 50 592
225 -1.5767228839117267 1.1188438160456828 3.0116836766689636 50 40 18 0.18979193519519666 42 1229 39 934 38 1030 32 1307 31 1313 35 1263 36 1142 34 976 40 824 47 719 28 891 30 681
1907 -1.559260486354878 1.1804765941566748 2.9770409130431252 184 181 166 0.060816198363519217 26 472 25 525
226 -1.5452507907049153 1.1171464950526591 3.0468332791257748 62 55 35 0.21567633221315358 42 1230 39 903 38 1012 32 1325 31 1353 35 1323 36 1212 34 534 40 497 47 391 28 848 30 621 27 464 26 359 25 425 24 448 20 455 22 490
1175 -1.4277403423496848 1.1468123906391139 3.1528159991868043 120 125 105 0.78067772538439983 35 1632 36 708 34 646
356 -1.566282241813739 1.1417636614915634 3.0029123429609155 47 43 21 0.1723132931033601 42 1364 39 1072 38 1167 32 1441 31 1441 35 1392 36 1262 34 1087 40 920 47 780 28 1031 30 821
227 -1.5900619202442563 1.1202383787647869 2.9964756480292878 43 38 30 0.19315636012055981 42 1231 39 952 38 1041 32 1302 31 1300 35 1245 36 1115 34 942 40 792 47 688 28 919 30 718
228 -1.5834428035438954 1.1194742530893336 3.0043322428030232 115 116 113 0.19563965215168755 42 1232 39 941 38 1035 32 1303 31 1305 35 1255 36 1127 34 957 40 807 47 346 28 905 30 698
1161 -1.4682357298266795 1.0661419888568429 3.1406608338761752 85 92 74 1.3109325937938618 35 675 36 574 34 175
286 -1.5359464586071538 1.1272954605363312 3.0482548264904539 109 114 115 0.17710105801223688 42 1291 39 944 38 1062 32 1390 31 1415 35 1387 36 1279 34 1124 40 967 47 830 28 887 30 652 27 480 29 501 26 427 25 437 24 458 20 462 22 493
229 -1.5519833666508007 1.1178933069940613 3.0390516261929585 111 110 101 0.21722857199337273 42 1233 39 911 38 1017 32 1323 31 1346 35 1312 36 1202 34 1042 40 892 47 620 28 859 30 635
230 -1.5585716972981836 1.1186467481590332 3.0313502624634312 51 42 23 0.23732705830125858 42 1234 39 921 38 1025 32 1321 31 1341 35 1301 36 1186 34 1024 40 880 47 761 28 868 30 648
3959 -1.4875056187807287 1.1491823465689526 3.0215497005420291 128 133 131 0.30319983177266374 60 362 63 367
280 -1.585532343406832 1.1289945169995395 2.9936472320654794 118 122 108 0.15509413903410987 42 1285 39 1003 38 1094 32 1351 31 1349 35 1292 36 1161 34 986 40 826 47 351 28 971 30 772
3211 -1.4435515339007248 1.2465204787006519 3.1076037627903572 112 100 88 0.8290495690270776 55 78 52 44 53 70 56 71
1396 -1.5716362595971163 1.0816245553507355 3.0499612372965594 153 161 149 0.54612550265393189 40 1184 47 951 33 569 37 633
231 -1.6034419380774594 1.1214206164498643 2.9813941899390115 61 53 38 0.43084877351937434 42 1235 39 463 38 1051 32 1296 31 1289 35 1224 36 1086 34 797 40 676 47 541 28 442 30 333 29 266 26 235 27 237 25 286 24 326 20 352 22 394 41 449 19 445 23 426 18 486 43 457 33 419 46 491 37 470 48 481 45 426 44 359 50 330 51 318 54 310 55 145 52 332 56 347 21 501 53 349 62 415 58 468 13 606 17 511 57 520 59 558 9 609 11 550 60 630 61 646 16 515 63 695 64 750 66 927 14 598 10 620 15 576 12 578 4 593 8 628 6 640 5 851 49 377 7 590 1 735 3 693 2 719
232 -1.5966690664604055 1.1210061100786561 2.9888536199993267 124 120 109 0.19217496022973432 42 1236 39 962 38 933 32 1300 31 1297 35 1235 36 1102 34 927 40 775 47 675 28 934 30 740
354 -1.5529763167377169 1.1403125867408619 3.0185089553379525 51 46 18 0.27665817085761529 42 1362 39 1046 38 1151 32 1448 31 1454 35 1413 36 1291 34 1119 40 956 47 807 28 996 30 775
3229 -1.5467830603895729 1.1116840113053794 3.049942283436812 62 59 45 0.1909812448173232 56 297 62 360 58 415 57 460 59 468 53 296 60 514 52 286 63 566 55 266
1406 -1.5992246537408203 1.1454738228561852 2.9449525293502652 215 212 191 1.0710415563139539 42 488 28 215 29 158
233 -1.5652484239284066 1.1193445609553176 3.0237302009631377 111 113 107 0.17409057768669892 42 1237 39 928 38 1031 32 1319 31 1333 35 1290 36 1173 34 1011 40 855 47 745 28 881 30 662 26 405 25 146 24 164 20 161 22 188
1915 -1.6191903739048552 1.2393788023894661 2.9079024703021088 55 38 36 1.4372829081448142 29 22 25 20 24 22
234 -1.57189572950255 1.1200817385473167 3.0159394020004431 51 41 20 0.21103807434546382 42 1238 39 937 38 1036 32 1316 31 1325 35 1281 36 1159 34 992 40 840 47 730 28 892 30 679
1183 -1.4436900134068253 1.0653960643346239 3.1977049229198649 76 92 71 0.79330747988912242 35 432 36 845 34 562 40 1069
364 -1.5547685026144951 1.1423220720785008 3.0149330582535692 113 121 99 0.1418101824819831 42 1372 39 1062 38 1164 32 1458 31 1461 35 1419 36 1294 34 1122 40 700 47 404 28 1015 30 796
235 -1.5404598644420413 1.1184776369193483 3.0508604512050308 62 60 47 0.3830452734150358 42 1239 39 908 38 1018 32 1337 31 1367 35 1339 34 1080 40 502 47 402 28 849 30 620 27 438 29 473 26 503 25 420 24 440 20 443 22 476 23 492 19 492 18 527 21 553 17 568 11 622 13 719 16 573 9 378 14 407 10 426 15 747 12 773 7 803 4 831 8 500 6 882 5 975 3 504
3448 -1.5752561850236748 1.1441780488234343 2.9923621199386092 46 49 25 0.15172031690540233 52 435 53 479 56 516 62 550
236 -1.5785044074471948 1.120852258233286 3.0082919647043518 110 119 103 0.18726036551134537 42 1240 39 945 38 1042 32 1315 31 1319 35 1270 36 1144 34 977 40 823 47 718 28 906 30 696
893 -1.3940242825675717 1.1526657262603837 3.181326521238705 115 117 102 1.2609391086524131 32 359 31 403 35 224
1169 -1.4404938839685637 1.0855544257249341 3.1665816893817507 96 106 82 1.0326681608710773 35 153 36 614 34 575
358 -1.5348332912821938 1.1401670060418412 3.0380157896769475 48 49 23 0.193580237951299 42 1366 39 1025 38 1144 32 1464 31 1478 35 1446 36 1337 34 1176 40 1010 47 595 28 963 30 726
237 -1.5470951591011544 1.1191953340912113 3.0432094182481042 109 112 107 0.16657457373175688 42 1241 39 914 38 1023 32 1334 31 1357 35 1327 36 1216 34 1062 40 912 47 791 28 860 30 631 27 359 29 488 26 367 25 436 24 463 20 299 22 510
3442 -1.5854421800480865 1.1287532294025031 2.993876832727878 102 108 97 0.1144428575751949 52 163 53 471 56 374 62 461
238 -1.5851465534646887 1.1215549942135192 3.0005681951808292 45 48 34 0.24826312350067106 42 1242 39 955 38 1046 32 1311 31 1315 35 1261 36 1132 34 962 40 803 47 700 28 920 30 716
352 -1.5844518704104209 1.1418904284759477 2.9835660258560099 50 46 40 0.23327095797618927 42 1360 39 1093 38 1175 32 1426 31 1417 35 1350 36 1213 34 1032 40 870 47 737 28 1062 30 864
239 -1.5537031794726608 1.1199666239189163 3.0353220049152623 51 46 28 0.19941548654421848 42 1243 39 922 38 1028 32 1332 31 1352 35 1318 36 1204 34 1041 40 891 47 773 28 870 30 646
240 -1.5918239062863007 1.1222531505629205 2.9927143397746652 117 118 106 0.15083738963113724 42 1244 39 965 38 1055 32 1310 31 1308 35 1251 36 1118 34 946 40 791 47 562 28 935 30 737
833 -1.480386293839328 1.330854347651734 2.9819193118923106 23 23 18 0.39306231002276681 32 1123 31 1161 42 1038
362 -1.5862351489394662 1.1438938681811548 2.9796931874368564 127 131 117 0.13161426302514803 42 1370 39 1106 38 1188 32 1435 31 1423 35 1355 36 1217 34 1033 40 869 47 734 28 1078 30 881
1350 -1.4282537574842662 1.1316868246223402 3.1214336778878358 59 68 58 0.25973433465061857 34 622 40 441
241 -1.5603540707092216 1.1206656749170929 3.027752540901179 111 118 103 0.15703030479099234 42 1245 39 932 38 1033 32 1331 31 1345 35 1307 36 1190 34 1026 40 879 47 567 28 883 30 660 26 400 27 374 25 482 24 153 20 144 22 171
1859 -1.5397023847575548 1.174214350696168 3.0039013046880441 49 40 27 0.1561485886841969 27 621 29 735 26 606 25 322 24 519 20 328 22 334
242 -1.5983770647963345 1.1229088838538641 2.9851255107045813 53 44 33 0.29338970917132617 42 1246 39 975 32 1308 31 1303 35 1240 36 1105 34 929 40 774 47 553 41 456 43 463 33 424 46 495 37 475 48 485 45 430 44 364 49 383 50 332 51 321 38 1060 28 951 30 761 54 312 55 148 27 569 29 620 26 579 25 276 24 316 20 335 22 376
1255 -1.4826833154428465 1.0596780322049637 3.1510896260427623 61 68 52 0.75604498864297387 36 517 34 463 40 498
372 -1.5432239890292745 1.1429600669909972 3.0266252115577688 49 44 33 0.1688982941190649 42 1380 39 1054 38 1165 32 1472 31 1480 35 1443 36 1328 34 1163 40 993 47 840 28 998 30 768
243 -1.566961731150295 1.1214538491718307 3.0198675494989846 49 46 31 0.18991773577018181 42 1247 39 939 38 1039 32 1329 31 1340 35 1297 36 1177 34 1013 40 861 47 744 28 893 30 677 27 512
244 -1.6049338332689664 1.1238429852753133 2.9772445561398544 140 141 131 0.31402509406731516 42 1248 39 987 38 1068 32 1306 31 1296 35 1232 36 1093 34 911 40 756 28 968 30 785 29 641 27 581 26 589 25 598
837 -1.5043810083521933 1.1506352702228848 3.0384675660507727 123 117 108 1.376187045786895 39 1071 32 1540 34 585
1177 -1.4990437039926001 1.2849473027203133 2.97451109819926 142 137 125 0.28519541363854278 35 1809 36 788 34 673
366 -1.5299990793470206 1.1413857495496529 3.042092982734685 50 50 23 0.22372386862475846 42 1374 39 1027 38 1149 32 1476 31 1491 35 1464 36 1353 34 1194 40 1029 47 871 28 964 30 721
245 -1.573650870745777 1.1221442345944015 3.0124123967440894 115 119 102 0.13482918541380509 42 1249 39 947 38 1047 32 1327 31 1335 35 1285 36 1163 34 995 40 839 47 364 28 907 30 694
246 -1.5422216568234106 1.1205712788951587 3.0473659073147803 110 114 104 0.19846569560184305 42 1250 39 918 38 1029 32 1345 31 1372 35 1343 36 1237 34 1081 40 931 47 802 28 861 30 632 27 469 29 484 26 362 25 429 24 451 20 458 22 491
360 -1.5795527779281298 1.1432104220536985 2.9875556203986977 50 52 30 0.14371861830760199 42 1368 39 1097 38 1182 32 1436 31 1431 35 1368 36 1232 34 1052 40 889 47 751 28 1063 30 861
3227 -1.5593219795987971 1.0981547920141017 3.0481971926870401 57 58 45 0.20904284619647812 56 285 62 345 58 403 57 455 59 477 53 282 60 516 61 537 52 272 63 574 55 250
247 -1.5802000804820155 1.1229536235383153 3.0043353932618895 50 37 34 0.20119429809567146 42 1251 39 956 38 1052 32 1322 31 1328 35 1276 36 1148 34 980 40 822 47 717 28 921 30 714
248 -1.5554647412576295 1.1219815001394486 3.0318034647422296 112 109 99 0.14640984761289055 42 1252 39 933 38 1040 32 1341 31 1360 35 1322 36 1207 34 1046 40 895 47 772 28 882 30 659 29 514 27 370 26 390 25 472 24 512 20 524 22 154
841 -1.26650467159235 1.2083462987419273 3.2300092117877859 21 27 17 0.24172728306432467 42 310 32 1716
370 -1.5813692637608605 1.1451687396827364 2.9840877057786859 123 133 105 0.17557572080573805 42 1378 39 1110 38 1194 32 1447 31 1436 35 1373 36 1236 34 1053 40 888 47 568 28 1079 30 876
1358 -1.4145499147830483 1.2307725791476913 3.0976204702869126 0 1 0 1.6481725319721017 34 674 40 581 47 279 41 193 43 163 33 131
249 -1.5487428035482109 1.1213316104676505 3.0390545118365329 57 46 29 0.19163325252801111 42 1253 39 925 38 1034 32 1343 31 1366 35 1332 36 1222 34 1064 40 911 47 789 28 871 30 644
1867 -1.5764009288458523 1.1112678249443568 3.0186365783625311 139 142 112 0.14206295036180866 29 399 26 399 25 490 24 169 20 171 22 204
250 -1.5868812594731734 1.1236525602416463 2.9967807437034457 115 122 110 0.16413047998619912 42 1254 39 968 38 1061 32 1320 31 1322 35 1267 36 1136 34 965 40 687 47 578 28 936 30 734
1263 -1.4978112022650045 1.0674033722635936 3.1490749383198482 104 107 95 0.86843958433463619 36 567 34 520 40 185
380 -1.5449788848630996 1.1449524876757393 3.0229571339782586 116 117 105 0.15422966670515839 42 1388 39 1070 38 1179 32 1481 31 1487 35 1448 36 1333 34 1162 40 992 47 838 28 1017 30 787
251 -1.6001605054313213 1.1249921436965931 2.9815063342810313 122 130 116 0.20325802911817947 42 1255 39 991 38 1073 32 1317 31 1310 35 1244 36 1108 34 931 40 773 47 673 28 967 30 781 27 244 26 240 25 288 24 332 20 355 22 395
3400 -1.5586661615683686 1.1336117624742934 3.017554997295373 41 42 22 0.057921504595048544 52 518 53 376 56 446 62 507
252 -1.5935375859334211 1.124258542081505 2.9891426723879011 41 40 30 0.27378495627534033 42 1256 39 980 38 1067 32 1318 31 1314 35 1257 36 1120 34 947 40 790 47 687 28 950 30 758 27 565 26 456 29 615 25 266 24 532 20 319 22 357
845 -1.5989713468367972 1.2679171303071002 2.895729028256667 69 56 51 0.5572061801714655 38 1444 32 1743 31 1910
1249 -1.5199765999100585 1.0312240502439902 3.1442590321683963 74 81 64 1.5914733940761856 36 880 34 431 47 272
374 -1.5250575202841115 1.1427779115815162 3.0460780971309176 54 50 30 0.22919215557488559 42 1382 39 1033 38 1156 32 1486 31 1504 35 1479 36 1376 34 1216 40 1048 47 887 28 965 30 722
253 -1.562095986553772 1.1227421283860923 3.0240933284551601 48 47 26 0.19606771926685174 42 1257 39 942 38 1044 32 1340 31 1354 35 1313 36 1195 34 1030 40 878 47 760 28 894 30 675
3394 -1.5345854506290764 1.1478969233326233 3.0308684269240489 103 111 108 0.18292772703276444 52 356 53 368 56 262 62 300
254 -1.5687455938152597 1.1233937593878092 3.0164512602438069 113 118 111 0.18940690385638767 42 1259 39 950 38 1053 32 1336 31 1348 35 1302 36 1182 34 1014 40 860 47 743 28 908 30 692 29 549 26 163 27 394 25 176 24 202 20 198 22 226
368 -1.5366179800512301 1.1421672060492829 3.0344461627619927 115 117 107 0.16106531402314841 42 1376 39 1043 38 1158 32 1474 31 1486 35 1454 36 1339 34 1177 40 1013 47 857 28 981 30 747 29 575 27 417 26 161 25 161 24 166 20 149 22 160
1356 -1.4363999804083718 1.0435057598625486 3.2053723019037386 38 45 38 1.9611963531140353 34 126 36 575 40 515
255 -1.5753512111681995 1.1242690751411692 3.0086009116922714 54 44 37 0.15535245077406887 42 1260 39 963 38 1059 32 1335 31 1342 35 1293 36 1166 34 997 40 844 47 729 28 922 30 711
257 -1.6121265591316809 1.1270645416637537 2.9873203962940011 116 109 99 1.9935891668653107 42 1262 39 1013 38 1089 32 1324 34 941 31 1324 47 585
688 -1.3177631641572061 1.3082552216863077 3.1417742858264974 42 42 18 1.5414958435704145 42 1875 38 879 32 1012
1714 -1.5261339271877516 1.1653090383249656 3.0262303302208609 135 139 121 0.2350874800750693 27 402 26 220 25 237 24 238 20 219 22 220
259 -1.5506177571732265 1.1232646520478462 3.036184483182168 114 115 100 0.16697647094390053 42 1264 39 935 38 1048 32 1354 31 1375 35 1338 36 1226 34 1069 40 915 47 787 28 884 30 656
261 -1.5571535033796093 1.1241286011671174 3.0279671688993326 51 46 26 0.16633101654218432 42 1266 39 946 38 1054 32 1352 31 1370 35 1328 36 1210 34 1048 40 898 47 771 28 895 30 673
692 -1.5441088977665023 1.4314107977071522 2.8387955291008558 1 2 0 1.2554191725859971 38 932 36 310 34 294 40 597 47 484 31 325 37 436 42 963 33 128 49 199
263 -1.5704868442500566 1.1255024334192882 3.0127286006807701 48 43 41 0.14052435023923063 42 1268 39 966 38 1066 32 1347 31 1355 35 1309 36 1183 34 1016 40 859 47 742 28 923 30 708
3766 -1.5220715617449248 1.1538669995889781 3.0395676133059144 37 39 16 0.16639105741595636 59 384 60 419 61 420 63 444 64 468 66 673 57 394 58 373
265 -1.6019558703884209 1.1269179393315136 2.9781320248385166 56 39 26 0.44155177039437393 42 1270 39 1007 38 1090 32 1326 31 1318 35 1250 36 1112 34 821 40 467 47 552 28 986 30 802 29 271 27 587 26 250 25 304 24 348 20 373 22 415 41 453 23 447 19 455 18 492 21 507 17 514 11 551 43 460 33 421 52 331 53 347 56 345 62 412 58 458 57 503 13 607 16 517 9 610 59 537 60 607 61 620 63 673 64 735 66 892 14 597 10 619 15 575 12 576 7 588 4 588 8 622 6 630 5 829 37 471 48 95 50 329 51 317 54 309 55 144 3 670 1 712 45 414 49 376 44 360 2 691
696 -1.5389715118088767 1.1866689408946443 2.9939106047361332 149 143 132 0.19246653664291599 42 1572 38 1351 32 1653 31 1670 35 1623 36 1511 34 1317 40 1143 28 1195 30 983 29 767
1722 -1.5278224399315206 1.1672630691192063 3.0221735316536389 52 41 35 0.10425049336940219 27 589 26 230 25 253
267 -1.538943276375879 1.1238964499650772 3.0475134349684621 53 49 25 0.19910710829719494 42 1272 39 930 38 1045 32 1367 31 1394 35 1364 36 1259 34 1104 40 698 47 406 28 872
269 -1.5837529380992745 1.1269597138417857 2.9972941260180246 48 44 27 0.15417267990863978 42 1274 39 985 38 1081 32 1342 31 1343 35 1288 36 1157 34 983 40 827 47 715 28 953 30 752
700 -1.6192951146975867 1.2415335153802354 2.8961618670708291 66 57 51 0.25778182377447251 42 1634 38 1402 31 1712
271 -1.5522607568601392 1.1254107146225187 3.0321159547284715 49 39 24 0.19978080906441983 42 1276 39 948 38 1058 32 1364 31 1382 35 1345 36 1230 34 1068 40 914 47 605 28 896 30 671
273 -1.5970066736864694 1.1284102836750667 2.9820019204140942 52 44 33 0.22264154312644907 42 1278 39 1010 38 1097 32 1338 31 1330 35 1266 36 1129 34 951 40 794 47 685 28 987 30 799 29 647 27 584 26 588 25 294 24 334 20 358 22 396
640 -1.435903312382006 1.1704905628518203 3.1174087487800848 158 161 139 0.73296778945391827 39 425 38 452 31 410 28 206 30 289 29 131 26 88 27 121 24 74 20 75 22 81 32 376
1666 -1.4364051717295994 1.2387568102794713 3.0927483915112042 91 81 50 1.6292243207404635 27 72 26 144 25 139
275 -1.53420436965205 1.1252293550479044 3.0517386272043328 65 60 46 0.39257538248035245 42 1280 39 461 38 1050 32 1379 31 1407 35 1380 36 950 34 1120 40 509 47 414 28 874 30 640 27 358 29 396 26 363 25 426 24 445 20 447 22 477 23 494 19 489 18 523 21 546 17 559 11 609 13 702 16 565 9 359 14 383 10 398 15 710 12 730 7 761 4 790 8 458 6 620 5 1019 3 998 1 1103
277 -1.5788562485689699 1.128311923456117 3.0013124794863266 47 50 29 0.10997241122635375 42 1282 39 990 38 1085 32 1353 31 1356 35 1304 36 1174 34 1001 40 847 47 728 28 954 30 750
644 -1.5657612781350718 1.084523437486566 3.0486118502842006 113 108 99 0.84816386791838494 38 486 32 1215 39 783 30 513
279 -1.5474095240549597 1.126653544009427 3.0363437011953689 58 46 36 0.11683471681353269 42 1284 39 951 38 1063 32 1375 31 1397 35 1358 36 1249 34 1088 40 928 47 800 28 897 30 669
3718 -1.4997054436092527 1.1493208298676152 2.9985388963351167 28 31 24 1.2983345809798559 58 236 59 244 63 694
281 -1.554105745383429 1.1273702801062859 3.0288010937163699 107 113 114 0.15965255337429818 42 1286 39 960 38 1069 32 1372 31 1388 35 1348 36 1233 34 1071 40 913 47 786 28 911 30 686
648 -1.7132807049719754 1.1465681873919962 2.8748070129982506 28 17 12 0.54392747037419142 42 968 38 500 32 1349 31 1277
1674 -1.5846655701572043 1.1141818878306871 3.007654637655965 143 142 127 0.11309422943654318 27 189 26 166 25 185 24 218 20 228 22 261
283 -1.5987569166345108 1.1302753158212806 2.9786272795047086 129 128 117 0.39869389566305191 42 1288 39 1026 38 1109 32 1346 31 1339 35 1272 36 1133 34 953 40 793 47 684 28 1006 30 820 29 429 27 401 26 597 25 310 24 355 20 376 22 416 41 588 23 444 19 453 18 490 21 504 17 512 11 547 43 633 33 558 52 396 53 441 56 487 62 414 58 460 57 505 13 603 16 513 9 606 59 536 60 603 61 618 63 667 64 729 14 594 10 615 15 570 12 570 7 580 4 581 8 606 6 762 5 811 48 553 55 379 1 693 3 649 44 453 49 380 54 405 2 674 50 427 51 424
285 -1.5673450337098334 1.1288505877628039 3.0133034650134594 118 117 112 0.16568993531970119 42 1290 39 982 38 1086 32 1368 31 1378 35 1330 36 1205 34 1034 40 881 47 376 28 940 30 725 27 201 26 179 25 198 24 222 20 223 22 246
652 -1.3151947319489652 1.3048507851839228 3.1628932578672986 87 89 77 0.95205080272503595 42 1785 38 521 32 945
287 -1.5739707477175142 1.1295851910309787 3.005564005914358 55 41 35 0.17540550682231384 42 1292 39 994 38 1095 32 1365 31 1371 35 1321 36 1194 34 1018 40 864 47 740 28 955 30 745 27 550 26 559 29 598 25 226 24 561 20 253 22 284
289 -1.5806007072681825 1.1303545965338619 2.997565836423111 121 125 108 0.22089524425817475 42 1294 39 1005 38 1100 32 1363 31 1365 35 1311 36 1178 34 1003 47 572 28 972 30 769
592 -1.4117901855811772 1.2528038449569845 3.1265017911169801 123 102 91 0.57339632605175905 39 56 38 71 28 49 42 74 30 24 29 24 27 23 26 26 25 26 24 29 20 58
1618 -1.5595530981838781 1.1683889059390558 2.9863628099745676 67 52 52 0.1358951151312027 29 747 27 631 26 306 25 366 24 390 20 393
291 -1.5872564808800171 1.1310689457507848 2.9900588457186505 42 39 21 0.19816581000429312 42 1296 39 1018 38 1108 32 1362 31 1358 35 1299 36 1164 34 987 40 825 47 714 28 989 30 793
293 -1.5558115094101601 1.1294599434648089 3.024888417763032 45 39 17 0.13372790295853096 42 1298 39 973 38 1083 32 1382 31 1396 35 1353 36 1238 34 1073 40 917 47 785 28 926 30 703
596 -1.3843533094334548 1.2155331929598543 3.168002684312869 94 94 91 0.52462441197875365 39 135 42 63 38 89
295 -1.5375890773764207 1.1293535683755789 3.04419261803671 51 48 37 0.22081964883173899 42 1300 39 958 38 1077 32 1400 31 1422 35 1393 36 1286 34 1125 40 966 47 829 28 899 30 665
3009 -1.5179251559537057 1.1727932566644694 3.0303639779270384 109 105 83 1.4925193467922255 43 405 55 278 48 432
3670 -1.5395037251867452 1.1817320996477627 2.996689418324002 125 128 124 0.14724308819977053 62 173 58 176 57 584 59 580 60 627
297 -1.5691058848146766 1.1309155510084217 3.009682462423056 55 40 34 0.2001481183942749 42 1302 39 997 38 1102 32 1377 31 1385 35 1335 36 1208 34 1036 40 885 47 757 28 956 30 744
600 -1.5218603858046327 1.3153785390633517 2.9152586497659381 3 0 3 1.1472902828738458 39 196 30 139 29 98 27 84 26 77 25 47 24 68 22 71 23 74 18 69 38 116 20 34
4043 -1.5213287457458062 1.1594998401343886 3.0363676011336307 35 34 22 0.17087978450852703 63 417 64 437 66 953 61 393
1626 -1.5481840564366203 1.1768158067700163 2.9921880495715922 50 41 25 0.16368978642762094 29 754 27 636 42 1548 39 1233 38 1334 32 1625 31 1633 35 1583 36 1461 34 1267 40 1081 47 892 28 1181 30 968 26 466 25 367 24 385 20 381
299 -1.5890512405135613 1.1330402203514827 2.9863756502474588 114 121 105 0.15772842327304618 42 1305 39 1034 38 1120 32 1370 31 1364 35 1303 36 1168 34 989 40 831 47 713 28 1008 30 813
1999 -1.5317273890851237 1.1355606535985168 3.0442937572411881 53 40 37 0.076771379042646706 20 486 22 515 24 487
301 -1.5509010243333365 1.1308122293757041 3.0287123479544658 51 41 31 0.17980508360477146 42 1307 39 979 38 1093 32 1394 31 1411 35 1369 36 1257 34 1093 40 933 47 798 28 927 30 700
303 -1.5956348486382379 1.1339382952487864 2.9782874723986499 50 46 26 0.21230944714590724 42 1309 39 1047 38 1129 32 1369 31 1359 35 1294 36 1154 34 974 40 473 47 566 28 1025 30 838
305 -1.5641882086542507 1.1322442528461405 3.0136422202879736 53 39 23 0.21781053925387486 42 1311 39 1001 38 1104 32 1389 31 1398 35 1352 36 1228 34 1058 40 900 47 769 28 957 30 741
672 -1.3113436123175823 1.3035082718749695 3.1612949939304471 32 28 13 1.8662646141146448 42 857 38 683 32 299
1698 -1.5275979121030536 1.1596899640181844 3.0288838757344454 130 138 126 0.15774418062137216 27 228 26 203 25 215 24 221 20 196 22 199
307 -1.5393498896621338 1.1313692494219802 3.0406298598203101 111 114 102 0.25560290453984186 42 1313 39 970 38 1091 32 1409 31 1428 35 1399 36 1290 34 1128 40 968 47 826 28 915 30 680
2007 -1.4147105733045406 1.2374962819213922 3.0923088520521804 1 0 3 1.3675606986243884 34 27 41 22 43 17
309 -1.5460529320541956 1.1320840355852182 3.0331283245780503 50 35 29 0.13936083013065456 42 1315 39 981 38 1099 32 1406 31 1425 35 1389 36 1273 34 1111 40 951 47 811 28 928 30 697
676 -1.2989791485907554 1.3949199346188401 3.1519023735580545 39 35 27 1.0434402523125603 39 662 38 728 28 1353
311 -1.5526800401097962 1.1328158101565087 3.0253510117079259 115 112 106 0.142481445303585 42 1317 39 995 38 1105 32 1403 31 1418 35 1376 36 1261 34 1096 40 937 47 618 28 943 30 717
3025 -1.5662036227106324 1.1064579831419019 3.0334450034763654 63 62 51 0.17385940828311852 48 217 45 504 49 195 37 195 44 528 50 489 51 493 54 497 46 204 55 511 33 579 43 540 41 521
313 -1.5592810940520245 1.1335706696552501 3.0177323860416485 52 46 26 0.19647129825294404 42 1319 39 1006 38 1113 32 1402 31 1412 35 1367 36 1245 34 1078 40 919 47 782 28 958 30 738 29 584 27 537 26 552 25 574 24 217 20 208 22 229
680 -1.3288313864033967 1.3525937621595552 3.1659819427108649 113 104 103 0.18902352785765339 39 1365 42 1926 38 778
1706 -1.548469765778983 1.1490626412634417 3.0159561400085635 144 146 130 0.076097468664970538 27 230 26 211 25 234 24 247 20 238 22 252
315 -1.5279798184818032 1.1318972464128561 3.052593169062443 65 56 36 0.39264646362938993 42 1321 39 781 38 1088 32 1425 31 1449 35 1044 36 1320 34 561 40 519 47 422 28 901 30 661 26 372 25 433 24 452 20 451 22 478 23 487 19 487 18 519 21 541 17 553 11 598 13 687 16 557 9 345 14 365 10 377 15 682 12 697 7 720 4 744 8 416 6 576 5 680 3 958 1 1062
2015 -1.4314136833874613 1.2078329240991719 3.0795659820480425 0 0 0 0.44324993885329039 34 227 36 257
317 -1.572588614562886 1.1349807933698743 3.0023771773216219 50 42 33 0.16349574486284901 42 1323 39 1031 38 1126 32 1398 31 1399 35 1344 36 1215 34 1043 40 883 47 754 28 992 30 783 29 625
684 -1.3409290706036667 1.3385823283550462 3.1199613407278193 83 77 68 1.1583481100212589 42 1053 38 810 32 1183
319 -1.5792377613398607 1.1357168096353387 2.994480433392372 120 127 116 0.20522965189261402 42 1325 39 1044 38 1134 32 1396 31 1393 35 1334 36 1203 34 1025 40 867 47 570 28 1010 30 808
321 -1.5478407342814076 1.1340832887691481 3.0295255774082213 108 117 101 0.18203964815201076 42 1327 39 998 38 1110 32 1416 31 1430 35 1241 36 1278 34 1113 40 950 47 810 28 944 30 713
752 -1.3054769970627671 1.3031724263040663 3.1567374804599999 73 64 71 0.7394713549970392 38 362 42 205 32 173
1778 -1.584403183686603 1.1065746621327919 3.0143366988781515 55 38 41 0.11100905144134783 27 377 26 401 25 149 24 179 20 184 22 219
323 -1.5924878545130361 1.1371393522829716 2.9790047760179914 128 129 110 0.17605701258947173 42 1329 39 1066 38 1150 32 1391 31 1381 35 1316 36 1175 34 994 40 829 47 708 28 1043 30 852
325 -1.5297513400599549 1.1339234604761352 3.0493596768183178 111 118 102 0.22607087486052965 42 1331 39 977 38 1103 32 1434 31 1456 35 1432 36 1325 34 1169 40 1008 47 859 28 914 30 676
756 -1.2638252390946052 1.2287922931411073 3.2317222032170996 0 1 0 2.1927857446346359 38 277 32 220 42 332
327 -1.5743659149696545 1.1370064044877399 2.9988560993387807 115 120 114 0.19538452254705871 42 1333 39 1048 38 1142 32 1407 31 1406 35 1351 36 1221 34 1045 40 887 47 373 28 1011 30 805
3830 -1.4790920608838234 1.1235812752297576 2.9982157727311036 27 27 14 0.48292760349260577 60 305 61 300 59 277 57 288
329 -1.5495107110838231 1.136219848036873 3.0256846010383067 53 44 27 0.17806222542773587 42 1335 39 1015 38 1125 32 1427 31 1440 35 1400 36 1282 34 1117 40 954 47 809 28 960 30 732
1786 -1.5570852159900563 1.1242557547541594 3.0286241682365422 46 41 29 0.17557224020607756 27 501 26 423 25 561 24 159 20 148 22 172
331 -1.5809331877211654 1.1378088485138731 2.9906393405194596 58 48 38 0.21367752746006521 42 1337 39 1060 38 1146 32 1405 31 1400 35 1341 36 1206 34 1027 40 866 47 738 28 1030 30 828
333 -1.5561754342245835 1.1368864857302816 3.0183658598459191 119 116 106 0.20642087116498262 42 1340 39 1024 38 1132 32 1424 31 1434 35 1390 36 1268 34 1099 40 935 47 398 28 977 30 755
764 -1.3067879690689896 1.1927970470028564 3.1984510717251164 82 83 64 1.4735475118148791 42 261 32 271 31 793
335 -1.5313750783411935 1.1360200986930142 3.0453843338534474 52 49 23 0.26921139724313259 42 1342 39 992 38 1116 32 1445 31 1463 35 1436 36 1330 34 1172 40 1007 47 858 28 782 30 691 27 496 29 533
1062 -1.3770092815737203 1.060970576716989 3.245959294089646 37 39 22 1.2106828430459036 31 553 35 714 36 629
337 -1.538016638204019 1.1367460313034032 3.0377426973425012 109 113 107 0.17520455854002173 42 1344 39 1004 38 1123 32 1442 31 1458 35 1428 36 1315 34 1155 47 843 28 945 30 710
704 -1.3001503243884711 1.292496148336606 3.1611943522955026 89 94 84 0.76677279660194975 38 1436 32 1080
1730 -1.5456267663599603 1.1600233545382463 3.0098889890101512 148 145 127 0.13119425330400936 27 261 29 693 26 246 25 274 24 288 20 280 22 293 23 296
339 -1.576050640405902 1.1391569366368917 2.994854002075086 46 40 24 0.19520415777612102 42 1347 39 1063 38 1155 32 1418 31 1414 35 1356 36 1227 34 1044 40 886 47 753 28 1028 30 825
341 -1.5513080879527215 1.1381843186877767 3.0223465628063453 114 114 101 0.15954485554877065 42 1349 39 1029 38 1138 32 1437 31 1447 35 1405 36 1288 34 1116 40 953 47 808 28 978 30 753
708 -1.6139230489509402 1.2835944546853448 2.867681593352664 10 0 3 0.20338010111999835 42 1710 38 1481 32 1759 35 1691 31 1789
1060 -1.4013938636033865 1.0509809299811299 3.2466219511190646 48 56 34 0.51869382404695419 31 375 35 695 36 605
343 -1.5579691362909043 1.1389059900119751 3.014760201817372 54 43 36 0.12859025539401447 42 1351 39 1042 38 1148 32 1433 31 1439 35 1394 36 1271 34 1101 40 939 47 604 28 994 30 774
3782 -1.5951186605149903 1.1261156245029353 2.9858818602190804 101 106 90 0.078444185978724726 63 702 66 921 60 648 61 657 59 577 57 544 58 486
344 -1.5264684394431756 1.1373032301234178 3.0494658568134323 62 53 34 0.21272712223615037 42 1352 39 996 38 1122 32 1457 31 1476 35 1450 36 1347 34 1190 40 523 47 428 28 931 30 328 27 369 29 529 26 386 25 495 24 474 20 470 22 496 23 503
553 -1.6464046646027732 1.2375038000419452 2.8697841662888477 41 34 18 0.49983240008747837 42 1628 39 546 31 1699 35 1635 36 1501 28 1255
3275 -1.5795322105621488 1.1303023633967755 2.9975791093762529 104 105 98 0.17271850681564216 52 172 53 168 56 391 62 477
1070 -1.3773365271455134 1.1722703352088717 3.2213704319234884 95 101 87 0.9491938077141997 31 154 35 857 36 1585
345 -1.5645804659890301 1.1396913505486206 3.0066929159127334 110 123 107 0.13209684620536913 42 1353 39 1056 38 1153 32 1431 31 1433 35 1382 36 1258 34 1084 40 703 47 387 28 1013 30 800
1579 -1.5501720563862613 1.1158991282869237 3.0427852752165752 52 34 28 0.13947137025513517 29 479 27 468 26 509 25 431 24 457 20 468 22 509
346 -1.5331273850406797 1.1380961852267772 3.0416277708762935 111 111 106 0.22902343124668009 42 1354 39 1008 38 1130 32 1454 31 1470 35 1441 36 1334 34 1173 40 1011 28 947 30 709
1738 -1.5443068981670951 1.1653104942626067 3.0064170711261027 145 145 125 0.13987502266109134 27 400 26 262 25 295 24 309 20 302 22 313
347 -1.539810608302203 1.138759686542127 3.0337491405256456 52 47 31 0.2992525061213297 42 1355 39 1021 38 1139 32 1452 31 1467 35 1431 36 1318 34 1156 40 989 47 841 28 962 30 729
349 -1.546469450704189 1.1394598515263985 3.0265270506646873 118 117 109 0.14433099027336022 42 1357 39 1032 38 1143 32 1450 31 1460 35 1423 36 1303 34 1136 40 969 47 823 28 979 30 751
716 -1.2934738850753713 1.3845261968523439 3.1813572148962392 127 124 117 1.9774222938378783 39 1443 38 1652 28 1325
1225 -1.444958416882113 1.076248819790379 3.1744384655341893 63 69 46 1.3490164725314813 36 381 34 186 40 203
350 -1.5778570167897121 1.1411324675935421 2.9914705057226065 122 124 119 0.15202205506115782 42 1358 39 1079 38 1166 32 1428 31 1424 35 1362 36 1229 34 1050 40 890 47 752 28 1045 30 843
1068 -1.4256910306419686 1.1222781352703677 3.1786327686206528 58 60 33 0.66679750644454749 31 639 35 778 36 238 34 260 40 451
351 -1.5217168653601878 1.1385871943725829 3.0534343355469269 66 59 41 0.38949483107759109 42 1359 39 1000 38 1128 32 1468 31 1489 35 1466 36 1365 34 1208 40 526 47 437 28 932 30 687 27 366 29 415 25 442 24 459 20 456 22 479 23 488 19 483 18 517 21 536 17 548 11 591 13 678 16 550 9 334 14 353 10 360 15 662 12 672 7 689 4 706 8 371 6 534 5 637 3 913 1 1022
353 -1.5597233630663461 1.1409634679278051 3.0109656065423769 121 122 110 0.15354946153947527 42 1361 39 1058 38 1159 32 1443 31 1448 35 1401 36 1277 34 1103 40 938 47 395 28 1014 30 795
1682 -1.5512735347518245 1.1381693439647067 3.0222892849152916 133 138 114 0.068589899621859268 27 203 26 178 25 189 24 205 20 195 22 211
355 -1.5282831379769155 1.1393512576411529 3.0459080679641075 109 122 99 0.18118045503923852 42 1363 39 1012 38 1135 32 1466 31 1484 35 1457 36 1350 34 1192 40 1030 47 872 28 948 30 705
357 -1.5415577253432178 1.1407996503370765 3.0304863137288613 108 112 104 0.17917293517796087 42 1365 39 1036 38 1152 32 1462 31 1473 35 1437 36 1323 34 1159 40 994 47 597 28 980 30 746
660 -1.216999122594403 1.2442098494783789 3.3642407113956279 36 36 33 2.2883383559322215 39 143 38 556
359 -1.572990251794375 1.1424165403867987 2.9954902052541104 126 127 116 0.15471623980989754 42 1367 39 1084 38 1173 32 1438 31 1437 35 1377 36 1248 34 1070 40 907 47 610 28 1047 30 842
361 -1.5481483826217008 1.1415760873646996 3.0227218524335173 54 40 22 0.17789584743549133 42 1369 39 1051 38 1157 32 1460 31 1466 35 1427 36 1310 34 1139 40 973 47 822 28 997 30 770
664 -1.6201810871363678 1.2308848844272895 2.8383312125439755 58 58 59 0.094300726412362451 39 1283 32 1674
1690 -1.5850668696085239 1.1215801187974219 3.0008908909219132 57 38 42 0.094482400753309145 27 392 26 193 25 225 24 252 20 263 22 301
363 -1.5234046589362427 1.1407661057981096 3.0500014787731629 116 117 109 0.21734543011717514 42 1371 39 1017 38 1145 32 1477 31 1499 35 1473 36 1373 34 1213 40 1049 47 890 28 949 30 701 29 538 27 497 25 454 24 477 20 473 22 497
365 -1.5614045926416196 1.1430747952509892 3.0071897649757466 47 41 22 0.14998239814694631 42 1373 39 1076 38 1174 32 1456 31 1455 35 1406 36 1281 34 1106 40 942 47 796 28 1032 30 817
668 -1.406529648802046 1.2656074229146514 3.1164774174338365 25 17 0 1.0681462264009824 39 518 38 619 28 482 29 778
367 -1.5681151305398144 1.1437077299802925 2.9996968142692202 119 127 113 0.12945427158696032 42 1375 39 1086 38 1181 32 1453 31 1450 35 1397 36 1266 34 1089 40 679 47 779 28 1048 30 839
369 -1.5746907015914424 1.1444862202837494 2.9918062043733511 50 40 31 0.20722337764609911 42 1377 39 1100 38 1189 32 1451 31 1446 35 1386 36 1250 34 1072 40 906 47 766 28 1060 30 860
736 -1.5696751433321372 1.2987141868176624 2.9022854160335205 83 78 66 1.068569217250358 42 30 32 34 35 28 34 18
1762 -1.5755506361060785 1.0964877693622561 3.0325687364786083 136 137 127 0.12321954457460547 27 351 26 356 25 424 24 461 20 484 22 538
371 -1.5500261493852376 1.1435046480998572 3.0194080914969517 120 117 103 0.16064812306049611 42 1379 39 1064 38 1171 32 1469 31 1474 35 1433 36 1313 34 1141 40 972 47 411 28 1016 30 789
373 -1.5564779244488529 1.1444216460449652 3.0109798285776415 47 47 15 0.2056001399498075 42 1381 39 1080 38 1178 32 1467 31 1468 35 1422 36 1297 34 1123 40 955 47 806 28 1033 30 815
740 -1.3135719245799511 1.1607388359414312 3.2212640658419529 48 55 41 1.6833345298566988 42 512 32 92
375 -1.5631874396124599 1.1450765057617172 3.0034991809204188 121 124 109 0.12053437966008128 42 1383 39 1090 38 1187 32 1465 31 1462 35 1415 36 1285 34 1107 40 941 47 394 28 1049 30 837
377 -1.5697571764379374 1.145875384640979 2.9956161667534529 50 41 37 0.14521671769457009 42 1385 39 1103 38 1195 32 1463 31 1457 35 1403 36 1269 34 1091 40 924 47 778 28 1065 30 857
744 -1.2972673540859625 1.1814097315504171 3.2577885220774871 16 15 16 1.665376494250691 42 269 32 127 31 462
1770 -1.4363616300263153 1.1914877844991494 3.0953559146832279 169 171 154 1.2641639165948073 27 586 26 380 25 88
379 -1.5764687412864455 1.1465106376334286 2.9882333062684747 122 123 115 0.14507394151960176 42 1387 39 1115 38 1202 32 1461 31 1451 35 1391 36 1256 34 1074 40 910 47 615 28 1080 30 874
381 -1.5831312814628731 1.1472953996422199 2.9803756239311241 51 48 32 0.18703275392226273 42 1389 39 1126 38 1209 32 1459 31 1445 35 1379 36 1241 34 1056 40 682 47 569 28 1093 30 892
748 -1.3621576168625835 1.2145669750280159 3.1623581380991426 38 37 12 1.4735274857388658 42 971 32 145 31 273
383 -1.5516046618163757 1.1457235457458943 3.0154826581975809 48 39 22 0.15534108130408542 42 1391 39 1081 38 1185 32 1479 31 1481 35 1439 36 1317 34 1143 40 976 47 821 28 1034 30 812
384 -1.5203988432397502 1.1440165623184089 3.0499757177540938 58 52 33 0.46908856236558877 42 1392 39 1037 38 1162 32 1495 31 1517 35 1493 36 1392 34 1235 40 531 47 442 28 966 30 330 27 396 29 248 26 394 25 459 24 484 20 474 22 498 23 505 19 495 18 525 21 542 17 551 11 593 13 679 16 555 9 338 14 354 10 358 15 659 12 667 7 681 4 694 8 745 6 514 3 894 5 618 1 996
386 -1.5648881582508036 1.1471924448323951 2.999891533321509 59 48 31 0.21442063656652646 42 1395 39 1107 38 1200 32 1473 31 1469 35 1418 36 1289 34 1110 40 940 47 795 28 1064 30 856
388 -1.5715507976488561 1.1478916012403073 2.9921474957636542 123 119 112 0.15059702542679493 42 1397 39 1118 38 1206 32 1471 31 1465 35 1408 36 1272 34 1094 40 926 47 607 28 1081 30 872
533 -1.5384368139133247 1.1793746471135809 3.0004320931033281 58 50 37 0.12678099590880257 42 1554 39 1235 38 1338 32 1635 31 1651 35 1603 36 1490 34 1299 40 1128 47 923 28 1182 30 966
390 -1.5781659120837412 1.1486200673018985 2.9843047284064723 55 47 36 0.19845663408466477 42 1399 39 1128 38 1214 32 1470 31 1459 35 1398 36 1260 34 1076 40 909 47 765 28 1094 30 890
3607 -1.5503351575526758 1.1182051220692453 3.0383598114180783 100 106 94 0.03293161080302915 53 615 56 266 62 316
392 -1.5219952068683074 1.1461498780453625 3.0467457859407729 114 120 111 0.2447420066522554 42 1401 39 1053 38 1176 32 1506 31 1523 35 1499 36 1396 34 1239 40 1068 47 902 28 984 30 736 29 560 27 184 26 406 25 476 24 502 20 495 22 517
1563 -1.5335615134577618 1.1454789262338954 3.034709871349329 55 35 28 0.083331837935310848 29 590 27 393 26 543 25 568 24 172
394 -1.553395024221071 1.1477226121101995 3.0117131417949747 119 123 114 0.16534234533074174 42 1403 39 1098 38 1198 32 1487 31 1488 35 1442 36 1322 34 1146 40 975 47 820 28 1051 30 831
396 -1.528571953961154 1.1468499835293713 3.0389296880511423 59 48 25 0.21600414370118293 42 1405 39 1065 38 1183 32 1505 31 1518 35 1490 36 1383 34 1218 40 1046 47 885 28 1001 30 760
